# .PCD v0.7 - Point Cloud Data file format
VERSION 0.7
FIELDS x y z
SIZE 4 4 4
TYPE F F F
COUNT 1 1 1
WIDTH 1459
HEIGHT 1
VIEWPOINT 0 0 0 1 0 0 0
POINTS 1459
DATA ascii
133.38268 -530.4079 -5.3781443
136.4323 -530.375 -5.5373344
139.38338 -530.44531 -5.427002
142.45174 -530.29352 -5.5439997
144.84473 -530.94531 -5.4339981
148.84521 -530.69531 -5.730999
151.31682 -530.3454 -5.4167151
154.39209 -530.0296 -5.2711682
157.66592 -530.02966 -5.5076013
160.4707 -530.36914 -5.7062511
163.48894 -530.40753 -5.7080026
166.18555 -530.51483 -5.4278016
169.13789 -530.53827 -5.540802
172.22884 -530.19464 -5.7841682
175.59607 -530.22119 -5.5221252
178.79321 -530.05518 -5.4291258
181.71324 -529.66547 -5.3450923
184.57341 -529.53516 -4.733531
187.47748 -529.41302 -4.1468019
190.60902 -529.45673 -4.0148578
193.32884 -529.13141 -3.6426363
195.39453 -528.38672 -3.276001
86.330078 -525.69922 -3.6484985
88.08709 -526.69849 -4.0244565
91.062408 -526.61505 -5.1957278
94.422852 -527.67889 -5.5754013
97.488281 -527.56769 -5.8293357
187.76001 -527.39746 -5.5340023
190.58322 -527.22656 -5.500556
193.55602 -526.60046 -4.8355002
196.52406 -526.3338 -3.5344551
198.90039 -525.40039 -3.2310028
79.489586 -522.612 -3.3551674
82.61515 -523.22296 -3.8380845
85.303711 -523.41565 -4.5651007
88.154785 -524.1745 -5.3620009
188.21289 -523.44141 -5.9209976
194.03488 -523.83203 -5.557857
196.57967 -524.0495 -4.8007522
199.59225 -523.61121 -4.1908016
202.52246 -522.97424 -3.8819008
204.48267 -522.90039 -3.2420025
73.290283 -519.875 -3.6120014
76.444664 -520.41119 -4.3118682
79.506058 -520.60211 -4.8273335
82.573242 -521.04688 -5.3588886
85.238609 -521.58984 -5.6623359
200.09445 -521.21429 -5.5970025
202.76607 -520.44849 -4.9424562
205.16168 -520.13281 -3.6710019
68.363281 -516.58984 -3.5167503
70.835785 -517.27045 -4.1454625
73.439346 -517.2782 -5.2894449
76.1521 -518.53906 -5.5972519
79.09668 -518.94922 -5.9080048
203.14757 -517.90063 -5.4575567
205.52481 -517.60706 -4.3478017
208.5293 -516.83759 -3.706145
210.4707 -516.16016 -3.269001
64.541344 -514.02563 -3.6588898
67.674538 -514.26135 -4.7816377
70.103844 -514.84442 -5.518167
72.141602 -515.57422 -5.7710037
206.09766 -515.48535 -5.5407505
208.3513 -514.72394 -5.0302
211.40495 -514.22449 -4.2180014
214.32356 -514.1098 -3.5902236
216.41211 -513.09766 -3.5190048
56.993164 -510.14844 -3.3850021
59.197918 -510.82162 -3.6010005
61.604214 -511.49469 -4.1398582
64.055908 -511.4585 -5.2340012
66.63607 -512.33856 -5.6923347
209.93945 -512.62109 -5.887001
211.8002 -511.77228 -5.4863014
214.46982 -511.59232 -4.865366
217.50945 -511.39532 -3.8902009
220.13393 -510.73383 -3.4251425
49.917236 -507.58789 -3.6267529
52.513348 -507.97266 -3.6742239
55.733074 -508.42188 -4.2317524
58.377277 -508.53452 -5.0234179
61.022461 -509.08282 -5.4570007
214.62532 -509.77475 -5.7296677
217.67265 -508.83087 -5.3247018
220.61507 -508.55923 -4.4707508
223.18858 -508.20618 -3.4533336
225.72461 -507.20703 -3.0880051
43.983643 -504.41309 -3.3855
46.924698 -505.4718 -4.0481129
49.806423 -505.63715 -5.0657787
52.470947 -505.72885 -5.3098335
54.897217 -506.36719 -5.4800014
221.13884 -505.85611 -5.5751686
223.50098 -505.52762 -4.8197865
226.09375 -505.17618 -3.9013009
40.676369 -502.30704 -3.6297011
43.638596 -502.43781 -4.5737696
46.202881 -502.63184 -5.3275013
49.27832 -503.62305 -5.6975021
224.28223 -503.38379 -5.5012493
226.59628 -502.52499 -4.9620676
229.32732 -502.43881 -3.6239178
34.883789 -498.61978 -3.1603343
37.675434 -499.4975 -3.8638585
40.642773 -499.45743 -5.024601
43.554688 -500.60742 -5.656498
227.04411 -500.02017 -5.7481675
229.50977 -499.55234 -4.5075021
231.41406 -499.22134 -3.2413356
32.793945 -495.16797 -3.2779999
34.712784 -496.60156 -3.8764453
37.169781 -496.73746 -5.1132865
39.457031 -497.58398 -5.6595001
229.69785 -496.69571 -5.2712011
232.46184 -496.39194 -3.8401673
234.57275 -495.38086 -3.2505035
29.623535 -492.60352 -3.3100014
31.497965 -493.32291 -4.016418
34.361778 -493.72775 -5.0580006
36.279297 -495 -5.6829987
230.53223 -494.44531 -5.8775024
232.62041 -493.70547 -5.1152015
235.3548 -493.50272 -4.0090008
237.35742 -492.9375 -3.3670006
26.564453 -489.83203 -3.25
28.53104 -490.44949 -3.9907858
31.373934 -490.86932 -5.3955479
33.811523 -491.98047 -5.875
36.131836 -490.94922 -5.8800049
233.73438 -490.82031 -5.9430008
235.80067 -490.69748 -5.0386667
238.40576 -490.54608 -3.6574006
240.60905 -489.3685 -3.2756679
23.490561 -486.8685 -3.3883336
25.578186 -487.43945 -4.4151258
28.487127 -488.09268 -5.2325468
236.58855 -488.30991 -5.6366677
238.50903 -487.67154 -5.0051675
241.45624 -487.24893 -3.8461838
243.55566 -486.95834 -3.1190007
19.585938 -483.52734 -3.0270004
22.644981 -484.49188 -3.930232
24.682455 -484.76041 -5.2614999
239.30176 -485.89453 -5.9150009
241.53523 -484.65884 -5.2199178
244.10898 -484.25937 -3.8075013
246.4873 -483.46875 -3.0480042
17.307129 -480.27734 -3.9230003
19.634626 -481.30051 -4.0465002
22.356001 -481.49005 -5.0972743
24.461914 -482.92969 -5.9049988
242.54655 -481.931 -5.5336709
244.67902 -481.51593 -4.7113085
247.57901 -481.50888 -3.8176367
250.00757 -481.16699 -3.4857512
10.601423 -477.54184 -3.662286
13.578918 -478.29688 -4.175251
16.361328 -478.79623 -4.7515845
19.538868 -479.01602 -5.389801
22.27002 -479.78125 -5.8785019
245.39844 -479.069 -5.6700034
247.48254 -479.09766 -5.2656269
250.56709 -478.63419 -4.5383539
253.04126 -477.73828 -3.822504
5.5874023 -474.26367 -3.3570023
7.9932456 -475.12924 -3.9081669
10.551627 -475.50339 -5.0448003
13.286718 -476.37189 -5.5915985
250.96457 -476.00223 -5.6287146
253.64217 -475.69 -4.5584288
255.83752 -475.02881 -3.6986246
258.05566 -474.17188 -3.0279999
2.2236328 -472.06406 -3.4826035
4.5246396 -472.43631 -4.3337712
7.0821199 -472.80716 -5.1991825
9.0136719 -473.31641 -5.7369995
253.62483 -472.38672 -5.429502
256.34308 -472.41647 -4.1288471
-1.1967076 -468.798 -3.4171448
1.5417969 -469.45364 -4.4822025
3.8958333 -470.20572 -5.4336686
254.19287 -469.72949 -5.753252
256.35413 -469.39597 -4.8107285
258.922 -469.24316 -3.3808756
-4.1040735 -466.03793 -3.381001
-1.5456543 -466.49936 -4.4650846
0.77913409 -467 -5.4016685
256.9848 -466.74664 -5.3897161
259.49811 -466.30551 -4.269002
261.94482 -465.19336 -3.3595009
-6.8314734 -463.15848 -3.3655713
-4.4311523 -463.625 -4.5045013
-2.3380859 -463.91953 -5.4816008
259.95639 -463.8418 -5.281836
261.99756 -463.31055 -4.0902023
-12.210938 -459.07031 -3.1920013
-10.275228 -459.93295 -3.4701691
-7.4787946 -460.49469 -4.4875722
-5.1463447 -460.9827 -5.5382876
260.85742 -459.98047 -5.8820038
262.41602 -460.42969 -4.5665402
264.2373 -460.31641 -3.2350006
-13.298925 -456.90039 -3.4987016
-10.413783 -457.72406 -4.6800008
-7.9523439 -458.14218 -5.6398025
262.67676 -457.43631 -4.5020795
264.3501 -457.29492 -3.076004
-16.122192 -453.98877 -3.4828758
-13.555208 -454.46301 -4.6998682
-11.186035 -455.43359 -5.6880016
260.7207 -455.35156 -5.6829987
262.42224 -454.53836 -4.9328189
264.85913 -454.05908 -3.6275005
-21.120117 -450.61328 -3.1050034
-19.145399 -450.99524 -3.6801121
-16.560669 -451.67554 -4.6330638
-14.208252 -452.27637 -5.4130001
263.12369 -451.64713 -5.476778
265.56592 -451.06601 -4.0438018
-24.525391 -447.63672 -3.4150028
-22.187988 -448.29297 -4.1501441
-19.591726 -448.73129 -4.8271432
-17.178711 -449.41895 -5.6332512
263.63086 -449.09375 -5.9260025
265.41046 -448.32266 -4.9264016
267.47736 -448.42578 -3.5038009
-25.392151 -445.22119 -4.177876
-22.903587 -445.77591 -5.4190917
-19.527344 -446.47266 -5.8010025
265.87146 -445.58984 -5.022366
267.89117 -445.58929 -3.6304309
-30.755859 -441.67838 -3.2216694
-28.36677 -442.60324 -3.9842873
-25.631836 -442.69177 -5.2741823
-23.646484 -443.41406 -4.2180023
266.4675 -442.66461 -5.2037148
268.32825 -442.51648 -3.8457794
-33.639973 -438.80338 -3.1870015
-31.497396 -439.37552 -3.961669
-28.935991 -439.7738 -5.1781831
-24.865234 -440.48828 -5.7170029
266.83545 -439.40625 -5.725502
268.53711 -439.6102 -4.3978586
271.65137 -438.17319 -3.4463348
-36.080566 -436.1543 -3.230999
-34.28376 -436.65317 -4.0640731
-31.921387 -436.67889 -5.0995011
-29.650391 -437.46875 -5.9899979
268.71826 -437.09912 -5.3756266
271.33459 -436.42261 -4.4858761
273.70834 -435.98373 -3.5541699
-37.136986 -433.35617 -3.8064561
-34.686768 -433.94467 -5.078835
-32.138672 -433.68359 -5.770504
271.88574 -433.68039 -5.0336385
274.31528 -433.27673 -4.2869253
-40.137913 -430.34723 -3.6968901
-37.652279 -430.53671 -5.0494013
-35.452148 -431.53516 -5.7965012
-31.492188 -430.85156 -5.4380035
271.81348 -431.59506 -5.4536667
275.12012 -430.87677 -5.239821
277.31845 -430.45313 -3.9796379
279.68555 -429.57422 -3.4085007
-42.869629 -426.86523 -3.4291675
-40.725098 -427.46362 -4.5083151
-38.703613 -428.13086 -5.4115028
277.55383 -427.85025 -5.3133335
280.44269 -427.7168 -4.1503758
282.97134 -427.0293 -3.5945015
-45.893555 -423.51694 -3.3643315
-43.671734 -424.45062 -4.144001
-41.307339 -424.6702 -5.5530024
277.94043 -424.72461 -5.0031686
280.84155 -424.69824 -5.5011244
283.50098 -424.69141 -4.1543641
285.38184 -424.34375 -3.2010002
-46.13792 -421.40384 -3.9236162
-43.56543 -421.92148 -5.3496008
-41.741016 -421.93439 -4.9313993
277.31641 -422.8125 -5.5250015
281.31787 -421.50455 -5.5960031
283.45068 -421.54572 -4.0412011
-48.81311 -418.07031 -3.5635023
-46.616146 -418.58829 -4.7481341
-44.209309 -419.61459 -5.5903344
281.52051 -418.875 -5.6680031
283.46576 -418.6434 -4.237431
-51.068359 -414.59766 -3.1620026
-49.14468 -415.36478 -4.3015399
-47.277668 -415.78842 -5.4505019
281.09692 -415.48145 -5.4526272
283.4624 -415.43164 -4.1701455
-51.084473 -412.29492 -3.2115021
-49.512371 -412.56015 -4.5189347
-47.708008 -412.28516 -5.8780022
281.21021 -413.3457 -5.3247509
283.44714 -412.45215 -4.1540017
285.20313 -411.94922 -3.1689987
-51.217968 -409.41876 -3.2974
-49.415562 -409.36511 -4.7583356
-47.889648 -409.80664 -5.7945023
283.72476 -409.64694 -4.822156
285.80496 -409.202 -3.5864313
-51.813183 -406.37775 -3.7945015
-49.970772 -406.58035 -4.9963584
284.36542 -407.01251 -5.457602
286.43027 -406.56613 -4.4836025
288.3335 -405.5918 -3.5910034
-52.309227 -403.2785 -4.4645305
-50.550781 -404.53125 -5.5979996
286.78009 -403.68039 -5.0127287
288.94907 -403.17969 -3.6241434
-54.57259 -400.33984 -3.4271672
-52.715672 -400.60156 -4.9173856
283.05142 -399.73047 -5.1970024
286.6665 -400.57501 -5.3289018
288.93481 -400.49072 -3.8874998
-54.970539 -397.30826 -3.9785011
-53.224976 -397.51416 -5.4205017
281.85156 -398.96875 -5.5350037
282.7103 -397.4668 -5.4408355
286.42587 -397.43399 -5.2717009
288.47226 -397.71719 -3.8546021
-57.059082 -393.70313 -3.1725006
-55.338448 -394.47852 -4.5623574
287.04929 -394.55612 -5.1460018
288.78775 -394.29037 -3.7550011
-57.286522 -391.22345 -3.2974
-55.558662 -391.54965 -4.7342868
-53.980469 -391.5625 -5.9780045
287.43732 -391.84531 -5.4770021
289.17303 -391.46945 -4.1911831
-57.648438 -388.1875 -3.3997536
-55.427246 -388.66879 -5.0263581
282.92578 -388.56641 -5.4780045
287.67578 -389.53516 -5.9869995
289.7334 -388.41629 -4.6815009
292.46109 -387.67523 -3.637001
-57.115234 -384.83984 -3.3360023
-55.893276 -385.69391 -4.6564298
290.24048 -386.29688 -5.5592518
292.5946 -385.53464 -4.803268
294.49414 -384.8584 -3.7047501
-57.499268 -382.41406 -3.3790016
-56.141254 -382.702 -4.8824296
293.54648 -382.70313 -5.1442003
295.07431 -382.49609 -4.3536377
-60.035156 -378.02734 -3.2870026
-57.651447 -379.4808 -3.9897518
-56.293526 -379.56586 -5.433146
293.65869 -380.50781 -5.4189987
295.76373 -379.61719 -4.6723585
297.17773 -378.24219 -3.5979996
-60.87207 -376.19574 -3.8544455
-58.5942 -376.89874 -4.9197702
-56.389648 -377.29688 -5.7825012
284.19043 -376.82813 -5.3623352
296.30957 -376.65277 -5.4360003
297.36887 -376.02121 -4.0497155
-63.88203 -372.85391 -3.5632005
-61.931789 -373.73859 -4.7319236
-59.958984 -374.4082 -5.7439995
296.71289 -372.9375 -5.9970016
297.6608 -373.26303 -4.5088344
-66.732422 -369.4707 -3.2490005
-64.369026 -370.48462 -4.5703545
-62.544922 -371.43359 -5.8769989
296.80078 -370.71484 -5.7109985
298.23779 -370.36523 -4.4264178
-69.399414 -366.25781 -3.1190033
-67.466591 -367.38086 -4.1637874
-65.527901 -367.90067 -5.4802866
291.08789 -366.24609 -5.3530045
296.6875 -367.86719 -5.9059982
298.54333 -367.38971 -4.6757703
-70.174217 -364.22501 -3.9423013
-67.993248 -364.62598 -5.2699184
291.44922 -365.42188 -5.1870041
299.26331 -364.75391 -4.9590912
300.25488 -363.59375 -3.7733333
-72.821655 -360.90918 -3.7168751
-70.727821 -361.88699 -4.9443588
-68.325684 -362.28125 -5.4300003
293.14844 -360.77866 -4.9826684
299.40903 -361.40884 -5.4516664
300.63449 -361.48941 -3.8215725
-75.14502 -358.20508 -3.3310013
-73.419273 -358.41119 -4.4808016
-71.32682 -358.89713 -5.8249993
293.79053 -359.35352 -5.401001
299.05078 -358.64453 -5.5248575
300.83426 -358.3931 -4.1284561
-75.182861 -355.0332 -3.7365017
-74.118652 -355.87189 -5.0031023
299.58936 -356.17578 -5.6884995
300.58203 -355.65793 -4.427146
-75.782875 -352.28082 -3.7055562
-74.448532 -352.25116 -5.0403008
299.34131 -352.52264 -4.6817007
300.35449 -353.22656 -3.2420044
-76.238571 -349.61627 -4.4587665
-74.759766 -350.36719 -5.8800049
299.6416 -349.681 -4.3171124
300.35645 -348.2565 -3.956337
-76.021942 -346.64545 -4.4982367
301.26471 -346.42877 -4.5553541
303.27051 -345.14844 -3.1910019
-76.293945 -343.41016 -4.4255357
299.86035 -342.35547 -5.9530029
301.66602 -343.40234 -4.7930832
303.45996 -343.58203 -3.5720005
-75.924805 -340.3143 -4.5006933
-74.594727 -341.35938 -5.7034988
301.35791 -340.25064 -4.8486676
303.33789 -340.43619 -3.3053334
-76.657288 -337.53052 -4.492064
299.98926 -336.08594 -5.6450043
301.49335 -337.49362 -4.8176365
303.38013 -337.77539 -3.4100018
-79.21109 -334.35968 -4.1452322
-77.211426 -334.88916 -5.282876
299.31348 -333.45313 -5.8074989
301.36801 -334.4707 -4.5508575
303.0415 -334.30273 -3.3195038
-81.552406 -331.42514 -3.4871686
-79.476715 -331.68689 -5.0013852
299.6123 -331.58984 -5.9225006
301.53766 -331.42828 -4.5202866
-81.460938 -329.51563 -3.3950005
-79.447266 -328.71335 -4.3837709
-77.330917 -328.1423 -5.3987155
301.41922 -328.51172 -4.9676375
303.4541 -328.39648 -3.2677517
-78.741058 -325.53485 -3.8653095
-77.646851 -325.17041 -4.7708769
301.80673 -325.69647 -5.1854029
303.94067 -325.27896 -3.7411683
-79.175964 -322.59082 -4.3836889
-77.980469 -323.08594 -5.586998
302.47006 -322.57291 -5.7820029
304.61627 -322.49167 -4.4120026
306.74316 -322.01093 -3.3312027
-81.314453 -318.14453 -3.0330048
-79.709511 -319.47296 -4.4020004
305.24008 -319.67523 -5.1647162
307.21866 -319.51041 -4.0079174
309.0752 -318.30469 -3.314003
-81.69458 -316.0752 -3.9095001
-80.206543 -316.98242 -4.9313025
305.79688 -317.32422 -5.7980042
307.73334 -316.64011 -4.874002
310.06598 -316.25278 -3.5457153
312.04395 -315.42578 -3.1310043
-84.282227 -312.25 -3.4869995
-82.67498 -313.59604 -4.414412
308.19107 -314.42838 -5.5230026
310.38782 -313.46362 -4.6492519
312.14127 -313.46744 -3.4979985
-84.567055 -310.22461 -3.5266674
-83.194336 -310.60254 -5.1191273
310.79346 -310.53281 -5.2485023
312.70737 -310.40018 -3.7187788
-84.871681 -307.17239 -4.2224679
-83.645264 -308.26367 -5.4550018
310.97351 -307.63757 -5.1946683
313.4259 -307.09521 -3.5985012
-87.169922 -303.08203 -3.4889984
-85.927734 -304.45425 -4.5607157
311.26157 -304.7858 -5.5460014
313.43961 -304.54849 -4.3937516
315.1958 -303.64453 -3.2169991
-85.40918 -301.64087 -4.603127
-83.711914 -300.37109 -5.7730026
313.69763 -301.70987 -5.1764569
315.31592 -301.27148 -3.9185009
-84.77282 -298.60049 -3.9496377
-83.558205 -298.53671 -5.4692001
314.375 -298.33725 -5.0921116
315.17285 -299.20181 -4.0486679
-84.462891 -296.03809 -3.3875008
-83.196022 -295.40945 -4.4622741
313.80783 -295.38367 -4.6564474
-82.424431 -292.40353 -4.6224637
313.64462 -292.36966 -4.7236376
-81.882225 -289.66837 -3.9827018
-80.155365 -289.3157 -5.1595464
314.08948 -289.72949 -5.1913757
315.44067 -288.9668 -3.9091263
-81.009766 -287.75781 -3.3960037
-79.354721 -286.4028 -4.6460013
314.18246 -286.61887 -5.5355725
316.4454 -286.20349 -4.1800914
-78.737213 -283.36115 -4.5915465
316.72903 -283.54376 -4.6422682
-81.058594 -281.0625 -3.0090027
-79.885895 -280.71545 -4.4388475
317.19757 -280.44232 -4.6852331
318.5625 -279.59375 -3.0090027
-79.808891 -277.48767 -4.6980786
317.10559 -277.35852 -5.2777796
318.51791 -277.29688 -3.8723347
-81.553291 -274.41071 -3.6732876
-80.133575 -274.54688 -5.108779
316.9389 -274.70703 -5.4125738
319.00912 -274.4006 -4.0841117
-81.990334 -271.35077 -3.749002
-79.919235 -271.65546 -5.2214003
316.93469 -271.65408 -5.4048896
319.06241 -271.57617 -4.0307016
-81.762695 -268.55234 -4.3360009
-80.366699 -268.06152 -5.6385021
316.73779 -268.73593 -5.3142023
318.52954 -268.63281 -4.0118752
-81.489586 -265.69226 -4.134335
-80.055908 -264.95703 -5.4176254
317.4429 -265.4968 -4.5824556
-79.480927 -262.85626 -4.2318678
-76.724609 -262.29346 -4.8594389
-74.500977 -261.11328 -5.6720047
316.9328 -262.46521 -4.5978193
-76.196518 -259.60336 -4.187386
-74.590431 -259.79843 -5.4602022
316.83908 -259.49246 -4.38693
-76.456474 -256.49664 -4.5961442
316.96964 -256.65509 -5.0715013
318.13892 -256.45801 -3.6652508
-78.431152 -252.81836 -3.5470009
-77.47541 -253.7397 -4.7073641
317.23376 -253.49574 -4.4506373
-78.905426 -250.47987 -4.3550024
-77.440186 -250.68555 -5.6860008
316.67529 -250.10515 -4.3077512
-81.30127 -246.69727 -3.2680016
-79.6744 -247.48759 -4.8022952
316.3342 -247.51346 -4.7458901
-81.91037 -244.36198 -3.8223343
-80.271904 -244.59598 -5.2401452
316.38724 -244.64818 -4.5834012
-82.279945 -241.43307 -4.3174005
-80.220055 -242.23698 -5.7086663
316.58844 -241.40012 -4.512073
-82.47789 -238.39787 -4.6223593
-80.706055 -239.32031 -5.6565018
316.92334 -238.4241 -4.4320726
-84.598793 -235.45117 -3.5536678
-82.537392 -235.48772 -4.964787
-80.885742 -236.54297 -5.826004
317.15286 -235.39844 -4.3399105
-84.831642 -232.46211 -4.0852022
-82.693748 -232.4371 -5.4205008
316.84338 -232.42609 -4.9242325
-85.181557 -229.51367 -3.9588344
-82.969604 -229.33691 -5.4476271
317.1337 -229.33594 -4.9249024
318.31104 -229.28125 -3.5182514
-85.451904 -226.31184 -4.0361676
-83.344604 -226.56104 -5.4521265
317.07922 -226.5573 -5.2104459
318.96777 -226.46172 -3.8632011
-88.022133 -223.14192 -3.496835
-85.871582 -223.84929 -4.7147517
-83.787109 -224.22266 -5.9029999
316.97644 -223.58636 -5.4074454
318.9834 -223.53751 -4.0105019
-90.651123 -220.05078 -3.3000031
-88.563416 -220.56963 -4.3783545
-86.590042 -221.36328 -5.5060015
317.13818 -220.56511 -5.5123353
319.04208 -220.56747 -3.9579108
-93.690674 -216.76563 -3.2582512
-91.475784 -217.40938 -4.1140003
-89.158485 -217.94699 -5.2352862
316.90073 -217.38239 -5.3913336
319.08221 -217.71947 -3.7354562
-94.361328 -214.39543 -3.8977709
-91.837799 -214.84447 -5.2180009
316.86505 -214.43828 -5.2099023
319.04321 -214.62012 -3.7772512
-96.55481 -211.40381 -3.5916252
-94.557991 -211.59645 -4.9583864
-92.461914 -212.29688 -5.9759979
316.54935 -211.26988 -5.1383653
318.58258 -211.84207 -3.7190006
-97.309479 -208.35866 -3.952729
-95.263237 -208.43143 -5.4160023
316.68066 -208.5831 -5.0461836
318.64584 -208.33398 -3.7093353
-99.507614 -205.19296 -3.4882004
-97.552315 -205.50418 -4.7255735
-95.75 -205.64844 -5.8090019
316.49658 -205.47238 -5.0649304
318.65366 -205.26563 -3.5933354
-100.0004 -202.37793 -4.3599191
-97.991943 -202.8667 -5.6598759
316.62628 -202.41484 -4.982502
318.73801 -202.38895 -3.5620008
-100.45163 -199.4599 -4.4414005
316.94238 -199.59082 -5.1601276
318.90344 -199.52637 -3.9167509
-100.74834 -196.4807 -4.6648836
316.88058 -196.52344 -5.2642746
318.80875 -196.71614 -3.774334
-102.51725 -192.78255 -3.6386669
-101.34527 -193.28386 -4.8575573
316.75354 -193.27884 -4.965693
318.74438 -194.04883 -3.5897503
-103.31797 -190.5276 -4.6960011
-101.91797 -191.84766 -5.7249985
314.96094 -189.43359 -5.9240036
316.85135 -190.5652 -4.7412314
318.56152 -189.25781 -3.1220016
-105.37246 -186.57813 -4.2028017
-104.5824 -187.77051 -4.6017523
314.69727 -187.02473 -5.8693366
316.66849 -187.58203 -4.622735
318.43198 -187.45833 -3.3316677
-106.72793 -184.37448 -4.5664678
-104.42871 -185.44141 -5.7099991
314.65723 -185.27734 -5.9630051
316.60547 -184.60457 -4.7091546
318.72086 -184.3923 -3.4540024
-109.12275 -181.39844 -4.4967709
-107.93896 -182.81055 -4.4249992
316.85126 -181.91602 -5.2224998
319.1543 -181.28764 -3.8560014
-112.06276 -178.11484 -4.520402
-110.5612 -179.73047 -4.6213355
317.16431 -178.75732 -5.4185009
319.30643 -178.66797 -3.9455576
-117.5144 -174.93945 -3.7457504
-115.33561 -175.37396 -4.4488678
-112.92334 -176.32487 -5.3195024
317.07715 -175.67467 -5.4548593
318.89902 -175.57578 -4.0822997
-120.28613 -171.29297 -3.6090012
-118.54531 -172.46927 -4.5004001
-115.85522 -172.97314 -5.5807514
-112.90479 -173.42969 -5.5017529
316.94684 -172.57899 -5.4634452
318.83887 -172.51085 -3.8965573
-121.22301 -169.11301 -4.2437863
-119.26156 -169.66406 -5.3775024
317.21811 -169.52539 -5.4666696
319.22281 -169.53683 -4.1042871
321.0752 -169.09766 -3.052002
-123.94934 -166.09473 -3.5965033
-121.95404 -166.28418 -4.6176887
-118.50921 -166.55469 -5.0770035
317.44141 -167.12402 -5.8197498
319.58362 -166.28516 -4.804729
321.57129 -166.34843 -3.4468017
-126.78418 -162.71407 -3.5896027
-124.55423 -163.50755 -4.3210011
-121.854 -163.72314 -5.6427507
-119.23047 -164.01016 -5.1130018
319.78369 -163.46614 -5.0019174
321.9025 -163.41602 -3.5558357
-129.06543 -159.5 -3.2560043
-127.26479 -160.38811 -3.973573
-124.93811 -160.49268 -5.3747501
319.88608 -160.73785 -5.1098895
322.03494 -160.61806 -3.4744449
-129.70633 -157.26674 -3.8550022
-127.60877 -157.42278 -4.9892325
-125.39648 -158.41797 -5.9489975
320.17606 -157.65067 -5.4171448
322.18124 -157.28777 -4.0392513
324.02832 -156.78906 -3.0309982
-130.35477 -154.34041 -4.3256445
-127.37732 -154.12354 -5.3790007
320.47656 -154.3073 -5.767334
322.41187 -154.42351 -4.2653351
-130.39331 -152.55664 -4.5780029
-128.86621 -152.28906 -5.9790039
320.47388 -152.10645 -5.7440014
322.5462 -151.39697 -4.3873768
-134.23969 -148.18272 -4.2148914
322.39319 -148.51683 -4.7221551
324.33951 -148.23958 -3.3269985
-135.68639 -145.32533 -3.8100019
-134.31236 -145.74107 -5.1240015
-130.4886 -145.91145 -5.6756692
322.63538 -145.77309 -5.0630007
324.79895 -145.32813 -3.9615564
-136.20709 -142.1987 -4.3569355
-134.72298 -143.53386 -5.4530005
323.17871 -143.35286 -5.705668
325.40109 -142.56354 -4.4324012
-138.57129 -138.73438 -3.9652023
-136.9783 -139.66493 -5.0938897
325.8056 -139.6232 -4.7883101
327.22925 -139.41699 -3.3177528
-139.30191 -136.49069 -4.5334625
-137.26016 -137.16875 -5.6492019
326.05579 -136.6823 -5.2767792
327.7532 -136.31027 -3.7168567
-144.62598 -132.39844 -3.0680008
-142.2216 -133.35059 -4.2027512
-139.78496 -134.15742 -5.235002
325.68387 -133.47728 -5.2637281
327.83752 -133.65381 -3.8255033
-145.3268 -130.34019 -3.7669096
-142.67805 -130.7836 -5.095068
323.81348 -130.10547 -5.8960037
325.70172 -130.49944 -4.810287
327.64862 -130.78516 -3.448401
-147.03223 -127.46484 -4.0610046
-145.46751 -127.55104 -4.7468014
-143.52473 -128.36458 -5.5936685
323.91699 -127.31641 -5.8175011
325.48047 -127.38551 -4.7905397
327.34595 -127.63574 -3.4537506
-148.32666 -124.45815 -4.3664308
-145.60965 -125.16016 -5.3311439
325.57938 -124.39311 -5.1226377
327.68237 -124.53662 -3.7656269
-151.01729 -121.19453 -4.153501
-149.02452 -121.90451 -5.1230021
325.44876 -121.75817 -5.0549107
327.56055 -121.72266 -3.511668
-153.66426 -117.62578 -3.8290009
-151.67015 -118.71622 -4.8517661
-149.46387 -117.99219 -5.286499
325.63525 -118.38818 -4.813189
327.15137 -119.46484 -3.5040016
-154.21167 -115.29077 -4.0157518
-152.18544 -115.46181 -5.437891
323.49448 -115.18685 -5.5751672
325.46002 -115.47236 -4.1943097
327.05273 -116.57031 -3.4589996
-154.49887 -112.40144 -4.2091556
-152.53125 -112.74766 -5.5234008
320.79004 -111.19531 -5.7519989
322.64709 -112.33301 -4.9858751
324.94769 -112.72135 -3.7842221
-156.57436 -109.04632 -3.8001447
-155.01848 -109.89814 -4.9910021
-152.97461 -110.45313 -5.9329987
320.31329 -108.96953 -5.6798005
322.57123 -109.70012 -4.5011549
324.7623 -109.23047 -3.3366013
-162.45508 -105.58203 -3.2340012
-160.27322 -105.96788 -4.0860009
-157.89307 -106.95475 -4.7542515
-155.69775 -107.14648 -5.7985001
320.23227 -106.45248 -5.5248351
322.61719 -106.64209 -5.1356258
324.94717 -106.48083 -3.9000015
-166.12671 -102.76025 -3.8132515
-163.44519 -103.77222 -4.6951256
-160.48145 -104.39258 -5.3716674
320.03906 -104.86328 -5.5090027
322.48398 -103.48763 -5.2721677
325.42624 -103.54581 -3.7258189
-168.79181 -100.01917 -4.3315473
-166.52432 -100.90661 -5.0777278
-162.52832 -101.88867 -5.6275024
-161.80469 -101.44922 -5.9940033
320.91895 -101.69922 -5.9360046
322.46341 -100.37287 -4.9720912
325.22592 -100.74479 -3.6646662
-171.97298 -96.667099 -4.207891
-170.20856 -98.171005 -4.8596673
-167.73438 -98.886719 -5.5330048
320.72461 -96.859375 -5.8850021
322.39493 -97.528122 -4.7267008
324.46249 -97.853127 -3.320601
-174.94684 -93.684464 -4.0113354
-172.93283 -94.927948 -4.6640015
320.61978 -94.501305 -5.7466683
322.7431 -94.459541 -4.1640725
-180.65479 -90.491211 -3.6470013
-178.33368 -91.24189 -4.3708487
-175.78633 -92.089455 -5.2090011
319.65842 -91.321617 -5.0596676
321.9834 -92.005211 -3.8010013
-187.32805 -87.736656 -3.9003334
-184.21523 -88.421005 -4.5586119
-181.28467 -88.662498 -5.2616014
-178.68091 -89.272461 -5.5982494
317.44727 -88.492188 -5.5525999
318.90787 -88.410156 -4.1394467
-190.15234 -85.180397 -4.3042741
-187.7688 -86.010742 -5.1730022
-185.35889 -86.697266 -5.7545013
317.07211 -85.637276 -5.324429
318.99597 -85.207466 -3.8072231
-193.02022 -82.368752 -3.8980012
-190.60954 -82.744789 -5.4097514
317.68457 -83.003906 -5.706501
319.43594 -82.531509 -4.3956013
-195.94357 -79.344185 -3.4632237
-193.70583 -79.694107 -4.9825392
-190.66284 -80.236328 -5.815752
319.72708 -79.593147 -4.6514635
321.15527 -78.378906 -3.8634987
-198.95044 -75.6875 -3.4837532
-196.66853 -76.578125 -4.3804293
-194.0603 -77.135742 -5.5925007
320.01703 -76.735489 -5.5095739
322.24048 -76.381187 -3.9531696
-199.48866 -73.294174 -3.8249242
-197.05301 -73.907364 -5.4258566
320.58789 -74.022461 -5.6972523
322.55499 -73.658051 -4.5293088
324.68243 -72.649216 -3.573401
-199.54213 -70.429947 -4.1981354
-197.24037 -70.699776 -5.6511426
322.85782 -70.48893 -5.1540012
325.37347 -70.369354 -3.5507786
-208.48535 -66.723961 -3.5916672
-202.30064 -67.056358 -4.1721454
-199.65518 -67.633591 -4.7089005
-197.90332 -68.550781 -5.6800003
323.41974 -67.465622 -5.5674009
325.21979 -67.506012 -4.0390782
-213.6377 -63.884113 -3.6403351
-211.40439 -64.407318 -4.3434558
-209.37012 -65.001465 -4.9951258
-202.44206 -65.477867 -5.6796699
-200.77441 -65.738281 -5.9179993
323.45117 -64.488838 -5.5695734
325.12759 -64.56076 -4.183002
-216.79688 -60.699219 -3.9175007
-214.56752 -61.74453 -4.7591343
-212.16699 -62.21582 -5.4760017
322.86337 -61.116405 -5.2756014
325.14932 -61.306641 -3.8257012
-219.2998 -57.744141 -3.7080002
-217.60719 -58.602165 -4.7674627
-215.19109 -59.441406 -5.8196692
322.44507 -58.162109 -4.6175847
324.35611 -58.247395 -3.2976685
-220.11368 -55.492188 -4.4112015
-218.28076 -55.548176 -5.009336
320.55957 -56.353516 -5.6990013
322.54395 -55.366478 -4.1857285
-222.49316 -51.558594 -3.6515007
-221.10097 -52.589542 -4.8093085
-218.04395 -53.207031 -5.2690048
320.94141 -53.863281 -5.8860016
322.51382 -52.469307 -4.8035016
324.52832 -51.714844 -3.2180023
-223.32996 -49.462646 -4.3551893
-221.42432 -49.822266 -5.9300003
320.41113 -48.466797 -5.5419998
322.47446 -49.397041 -4.743073
324.46997 -49.705078 -3.5282516
-225.75769 -46.146973 -4.1715002
-224.42578 -46.760044 -5.4047174
320.39258 -45.820313 -5.5139999
322.69031 -46.452602 -4.5020676
-226.14941 -43.326923 -4.4813862
320.70685 -43.596092 -5.6720033
322.64835 -43.399414 -4.2090011
-228.79851 -40.102863 -3.4960022
-227.22372 -40.862892 -4.5894012
320.11804 -40.427082 -5.0860028
321.69565 -40.639973 -3.7973354
-231.98694 -36.693359 -3.7807512
-229.68329 -37.785156 -4.737617
-227.89844 -38.113281 -5.8099976
317.99805 -37.050781 -5.9950027
319.50406 -37.522881 -5.0050011
321.61133 -37.66927 -3.4941673
-234.91797 -34.061718 -3.5238006
-232.43733 -34.334961 -4.8095016
-230.47998 -35.470703 -5.5839996
317.47812 -34.403908 -5.5692034
319.56836 -34.48798 -4.4332323
321.32471 -35.166016 -3.3549995
-237.55119 -31.376675 -3.7398572
-235.52203 -31.637154 -4.4788904
-232.83157 -31.658073 -5.0358686
-230.80176 -32.316406 -5.2990036
314.73828 -30.363281 -5.6240005
316.69666 -31.449574 -5.2908201
319.03391 -31.737926 -3.7860911
-240.17676 -27.415039 -3.9440022
-238.42194 -28.44853 -4.3302364
-236.19753 -28.448509 -4.7801838
-233.99707 -28.730469 -5.8040009
313.68121 -28.368862 -5.7105722
316.35284 -28.319336 -4.4846883
318.51514 -29.09375 -3.2055016
-240.63397 -25.528765 -4.5035462
-238.38428 -26.216797 -4.1562519
-236.7998 -26.246094 -5.3390045
313.61639 -25.398438 -4.9538193
315.77246 -25.5798 -3.8655744
-241.1227 -22.69029 -4.5857863
311.3631 -21.748438 -5.4650011
313.54318 -22.71244 -4.4340005
315.08105 -22.410156 -3.1580048
-241.62061 -19.792318 -4.6980844
-239.44336 -19.58724 -4.964335
310.70126 -19.506641 -5.0876007
312.62094 -19.691965 -3.772572
-241.12592 -16.766666 -4.4644017
308.73926 -15.982422 -5.7949982
310.59109 -16.577288 -4.4568582
312.44238 -16.699219 -3.1160049
-240.86891 -13.435698 -4.4302325
305.57422 -12.914063 -5.5240021
308.54068 -12.907552 -5.4866662
310.20251 -13.706163 -4.3093352
-241.1525 -10.340445 -4.4756947
305.79443 -10.863281 -5.8780022
307.70078 -10.357031 -5.3624001
309.9819 -10.625901 -4.2467699
-243.98509 -7.1658382 -3.9154565
-242.04346 -8.0507813 -4.9418764
305.48291 -7.4677734 -5.5460014
307.61453 -7.528646 -4.5747781
309.60468 -7.8343749 -3.7738006
-244.36868 -4.5646033 -4.6673856
302.18652 -4.2539063 -5.9980011
304.6593 -4.4683161 -5.3623333
307.45035 -4.7451172 -4.1245022
-246.85001 -0.51093751 -3.5770004
-244.98177 -1.5231119 -4.9702511
302.09222 -1.2877604 -5.2466683
304.1488 -1.9281851 -4.0913095
306.38135 -2.8496094 -4.088501
-247.53691 1.5786458 -4.4784012
-245.07959 1.3222656 -5.78125
299.25293 2.2011719 -5.5915012
301.43439 1.3605957 -4.4296889
-250.05811 5.0210938 -4.2134008
-248.18001 3.8417969 -5.0975022
296.48145 4.4140625 -5.9449997
298.97076 4.5993304 -4.6873589
300.20117 3.6679688 -4.372335
-252.87653 7.28125 -4.0221124
-251.34695 7.4497766 -5.222858
295.97406 7.512835 -5.3902884
298.15787 7.4166665 -4.3457508
-252.3951 10.654017 -3.8184302
-251.50764 10.912109 -5.2021661
295.76114 10.582812 -5.1073022
297.98599 10.346354 -3.7975583
-252.68546 13.737571 -4.2255478
-251.61133 12.849609 -5.5365028
293.12012 14.029297 -5.9334984
295.70908 13.363933 -5.2455025
298.35236 13.478907 -3.6015351
300.34766 14.902344 -3.0429993
-255.5835 17.116537 -4.3959999
-254.21053 15.829799 -4.5854297
293.61914 17.128906 -5.8400002
295.96671 16.241121 -5.2547283
298.48065 16.692968 -3.7519011
-256.39932 19.451172 -4.3567505
293.89844 20.484375 -5.5820007
295.65833 19.425781 -5.425375
298.54758 19.419744 -4.1583648
300.22998 19.607422 -3.1264992
-258.68274 23.088108 -4.2907791
-257.49838 21.62565 -4.9483352
293.61133 22.976563 -5.5675011
295.65848 22.463169 -5.000145
298.04013 22.694603 -3.9757288
300.45728 22.526367 -3.4260025
-262.13638 26.75 -3.3726704
-259.71582 25.484375 -4.565167
293.82324 25.804688 -5.6730042
295.6037 25.522949 -4.5341878
298.55273 25.311632 -3.5313349
300.9043 24.707031 -3.0009995
-265.25977 29.37779 -3.8397162
-262.69565 28.1875 -4.673418
293.74463 28.371094 -5.4480019
295.48737 28.777344 -4.4526887
297.58887 28.229166 -3.4750011
-270.15137 32.144531 -3.3295021
-268.19342 31.587139 -4.3510785
-266.0752 30.708593 -5.2733994
293.33817 31.93471 -5.171145
295.11191 31.397461 -4.2418346
297.1123 31.003906 -3.2360001
-270.73804 34.66748 -4.0057507
-269.09143 34.185547 -5.2682524
290.11572 35.675781 -5.6170006
292.80292 34.397915 -4.5806017
294.56152 34.511719 -3.357502
-273.5498 38.287498 -3.9296005
-271.98682 37.062889 -4.678401
290.02393 37.967579 -5.0043006
292.5368 37.292667 -3.9870787
294.55469 36.476563 -3.6030045
-276.0166 41.804688 -3.0970001
-274.36456 40.568211 -4.2783098
-272.39209 40.181641 -5.6484985
287.57681 40.684895 -5.4313378
289.2807 40.260323 -4.474216
291.71582 40.434895 -3.3633347
-276.92542 43.931641 -3.6530018
-274.96796 43.081249 -5.1160026
286.91763 43.699219 -4.7872863
288.63931 43.741535 -3.8436673
-277.48099 46.590366 -4.364934
-275.43164 45.730469 -5.7166672
284.58432 46.58073 -5.5576682
286.45929 46.380127 -4.524251
288.31967 45.8125 -3.5670013
-279.75439 49.464844 -3.411335
-277.61826 48.969727 -5.1515021
284.27213 49.882256 -4.948144
286.3334 49.375324 -4.0060849
-278.32358 51.532551 -5.7783356
283.84912 52.529854 -4.8021441
285.6377 52.445965 -3.655669
-283.80307 56.454426 -3.4853337
-280.95685 56.453125 -5.1066008
281.51514 56.339844 -4.993
283.43533 55.400826 -4.3476133
285.18213 54.732422 -3.4655037
-285.79263 58.882813 -3.2253315
-283.47308 58.490234 -4.5421448
-281.54785 57.596355 -4.9323349
277.62424 59.028645 -5.4385571
280.71335 58.408779 -4.8371201
283.27225 58.003471 -3.8311124
-288.60059 62.773438 -3.2340012
-286.33295 61.651142 -4.2330012
-284.4541 60.626953 -5.1992531
275.1499 62.355469 -5.7490005
277.51886 61.736717 -5.092701
280.41833 61.213943 -4.4502316
282.84204 61.51709 -3.6020012
-292.04736 65.673828 -3.0415001
-289.03827 64.543678 -4.0639114
-287.16574 64.525108 -5.3472867
271.67871 65.089844 -5.6412525
274.76385 64.673828 -5.3790016
276.86246 64.025108 -4.7027154
280.56909 64.131348 -3.6073771
-294.62247 67.561722 -3.1828003
-292.62131 67.573784 -3.6008894
-289.43896 67.85482 -4.4477787
-287.79102 66.574219 -5.5910034
269.07617 68.232422 -5.3824997
271.61499 67.566078 -5.2455025
274.51324 67.626671 -4.4932165
277.56671 67.342972 -3.7979012
279.94745 66.683594 -3.3468032
-297.66797 71.572266 -3.2310028
-295.29355 70.524414 -4.0300031
-292.34253 70.548828 -4.6362505
-290.21103 70.118362 -4.9668021
268.42496 70.708832 -5.4308481
271.76712 70.505325 -4.7493649
274.34766 70.548981 -3.7675395
277.05338 69.272133 -3.1720021
-298.37314 73.607956 -3.6128194
-295.70193 73.155952 -4.6261544
-292.48502 73.349609 -5.3501687
-290.05762 72.371094 -5.125
263.95898 73.988281 -5.3250046
265.4787 73.774216 -5.3591018
268.47018 73.687798 -4.6916938
271.45792 73.42643 -4.0806675
273.88046 72.842186 -3.3645997
-300.71851 76.670898 -3.369751
-298.3504 76.406639 -4.2769003
-295.75247 76.127129 -5.3855467
-293.55518 75.785156 -5.564003
260.36279 76.880859 -5.3255005
262.33203 76.690628 -4.800601
265.39087 76.433266 -4.699585
268.39941 76.346352 -4.0228906
270.64355 76.041664 -3.4310024
-303.25879 80.117188 -3.1230011
-301.20847 79.498222 -3.8609114
-298.0802 79.217285 -4.7730007
-296.28085 79.36953 -5.734601
259.63248 79.827011 -4.3483582
262.38486 79.009117 -3.7022507
265.34152 78.72377 -3.5141449
268.00513 78.608398 -3.4137535
-300.84604 82.568146 -4.8488903
-298.80664 81.510414 -5.4646683
257.44238 82.915367 -5.3120017
258.51715 82.273994 -4.1512866
-301.55994 85.460938 -5.0801268
256.74777 85.524483 -4.5886006
258.54199 84.097656 -3.0459976
-303.86499 88.206543 -4.5903759
-302.70996 87.975258 -5.6003366
254.26212 89.198441 -5.1062012
255.71138 88.155891 -4.1144562
-307.35678 91.861328 -3.8183353
-304.81107 91.15715 -4.901001
251.20117 92.507813 -5.4400024
253.5459 91.653168 -4.6019483
255.00488 90.078125 -3.651001
-309.93115 95.408203 -3.7215042
-307.64331 94.647789 -4.493084
-305.10059 94.155693 -5.5941434
251.57471 93.746094 -5.5930023
253.24567 94.484589 -4.4483905
255.08887 94.576172 -3.1155014
-312.50781 98.563805 -4.2393365
-310.1915 97.589134 -4.4424562
-308.05847 97.23394 -5.1611118
-305.97266 98.015625 -5.9319992
250.56694 97.627838 -4.9170918
253.49687 97.271484 -3.9212005
-312.97351 100.5293 -4.4291267
-310.42566 100.57995 -4.9635348
-307.9682 99.71875 -4.5274453
248.51595 101.26693 -5.1676688
249.87956 100.18837 -4.225112
-313.33478 103.40469 -4.5860009
-310.99448 103.28841 -5.4431672
-308.70508 102.09375 -5.8649979
247.35994 103.41155 -4.5304313
-315.74512 106.55566 -4.685751
-313.47876 106.41016 -5.0401268
-311.53549 105.53385 -5.5870004
245.2605 106.87988 -4.5749192
246.42603 105.81152 -3.8362522
-315.84668 109.26693 -5.2736678
-314.07813 108.22656 -4.7720032
242.81055 110.22266 -5.3789978
244.79741 109.77876 -4.2220931
239.97949 113.47266 -5.8430023
241.49045 112.38867 -4.3797164
243.14502 111.56641 -3.2045021
-321.44238 116.5 -5.5299988
-320.05322 116.55469 -5.802002
239.3938 115.77441 -5.2243776
240.49202 115.20248 -4.0633354
-322.05533 119.06185 -5.250669
-320.74927 118.46582 -5.6587505
236.98438 119.96484 -5.8820038
238.5172 118.76863 -4.3733854
240.20898 117.29297 -3.4780045
-324.17969 121.08203 -5.677002
-322.07129 121.03828 -5.5882006
236.16071 121.65365 -4.9462228
237.3938 120.82422 -3.6807518
-325.323 124.55762 -5.7712517
-323.43491 123.95313 -5.6293335
233.21707 124.74219 -5.3134298
235.15987 123.95586 -4.0810013
-325.16211 126.69922 -5.6280036
230.64192 128.29558 -5.6663337
232.56445 127.44364 -4.3146443
234.33301 126.60547 -3.1580048
-327.85156 130.47266 -5.8810043
227.8418 131.72656 -5.3010025
229.29628 130.33444 -4.6030021
231.62956 129.42188 -3.5243378
-329.21924 133.14844 -5.8345032
226.56282 133.62396 -4.4582019
228.17871 132.47656 -3.3855019
-329.18945 135.37109 -5.8929977
220.47363 137.42188 -5.6873345
223.88239 136.53613 -4.4822516
225.54492 135.64453 -3.1210022
218.05176 140.16797 -5.2840042
220.526 139.8335 -4.9205632
222.58447 138.54883 -3.9245014
218.08975 142.85507 -4.6601005
219.61543 142.13046 -4.0430021
-335.92285 146.96484 -5.3509979
215.08235 146.05426 -5.0991125
217.34781 145.2545 -4.5472312
212.6136 149.57422 -4.9826684
214.15367 148.41655 -4.0663652
216.02832 147.05859 -3.0070038
208.7959 152.47266 -5.6486025
211.50461 151.64928 -4.6275001
213.08984 150.25 -3.6320038
205.99292 154.37402 -5.6245022
208.6656 154.42941 -5.3698583
210.98555 154.41719 -3.9603019
199.79655 158.1875 -5.4933343
203.03484 157.80403 -5.6858344
205.95557 157.76367 -5.2623758
208.48737 157.29167 -4.3178678
199.98477 160.72734 -5.5
202.30554 160.38965 -5.7891273
205.42006 160.61412 -4.5296445
207.43091 159.61328 -3.7097511
200.03735 163.55225 -5.600502
202.67857 163.67084 -4.4409356
204.81819 162.68034 -3.7171669
-346.12109 167.42188 -5.3499985
199.6416 166.40448 -5.2040925
201.56136 166.31184 -3.8626671
199.69089 169.49818 -4.3100681
199.73265 172.49039 -4.552309
197.80078 176.99219 -5.6200027
199.84973 175.50781 -4.3161898
197.56526 178.85222 -5.1018348
199.02225 178.15582 -4.2490015
197.63899 181.18945 -5.2796683
198.4187 181.67871 -3.8202505
196.97491 184.78426 -4.9433093
198.3894 183.91504 -3.7815018
194.4086 188.25313 -4.9486008
195.92155 187.21973 -4.1010838
191.82129 191.99609 -5.2340012
193.38383 190.51892 -4.3272643
190.73988 193.86542 -4.6260915
192.44385 192.67773 -4.0230026
-361.53809 195.23047 -5.7200012
185.32568 197.76367 -5.2014999
187.66417 196.96875 -4.4748425
190.04576 196.399 -3.8482862
181.98796 200.61198 -5.2319999
184.47058 199.7948 -4.5270605
187.06096 198.77791 -3.7955725
176.19824 203.46953 -5.0676012
178.51347 202.72084 -4.2664018
181.3501 202.17546 -4.2833343
183.82617 201.8875 -3.5943999
173.33191 205.78711 -4.9586258
175.12549 204.55469 -4.2668762
178.33887 204.13281 -3.0859985
170.64795 209.43262 -5.2170029
172.42418 208.29262 -4.3289104
166.97098 212.40178 -4.8210015
169.39565 211.24051 -4.4682875
164.93555 214.20313 -5.9980011
166.06592 214.51215 -4.1307793
168.63118 215.07422 -4.0633368
166.91267 217.32338 -4.6085
164.75732 221.1875 -5.8510017
166.64108 220.36629 -4.6116171
164.19316 223.47696 -4.7464018
166.11426 223.07227 -4.7240028
161.48145 227.41797 -5.6389999
164.04317 226.05313 -4.7450013
165.16943 226.52539 -4.3455048
162.3623 228.20313 -5.7140045
-97.733887 506.59375 -5.418499
-162.88184 509.47656 -5.8436661
-160.8728 509.31738 -5.881752
-153.76309 509.86328 -5.2448015
-152.32129 509.95703 -5.9500046
-111.58105 509.97656 -5.3110046
-109.09302 509.75391 -5.4002495
-105.76758 509.22949 -5.4122524
-103.50693 508.86185 -5.051456
-100.44932 508.10236 -4.9794016
-98.497559 507.33008 -5.3610001
-166.37834 512.35266 -5.2877164
-163.44357 511.57617 -4.6129303
-160.52051 511.32343 -4.3932681
-157.53271 511.09598 -4.2402864
-154.69719 510.78027 -3.9617512
-151.57666 510.82697 -4.2633009
-148.63582 510.79868 -4.4493866
-145.59644 510.44662 -4.3805852
-142.35506 510.69113 -4.4907146
-139.32094 511.38495 -4.5434551
-136.51506 511.97592 -4.7329183
-134.16269 512.39685 -4.5957017
-114.41455 512.83398 -5.6595001
-112.17053 511.8999 -5.2543783
-109.66581 511.577 -4.8972869
-106.42139 511.39029 -4.8282514
-103.954 511.35391 -4.5043015
-168.98584 514.91357 -5.3165016
-166.58244 514.26648 -4.0923586
-164.12434 513.16534 -3.369334
-132.8084 513.92969 -3.8102021
-130.7 514.51251 -4.5262008
-127.75206 515.3941 -5.1594458
-124.19746 515.54218 -5.4622011
-121.39474 515.43317 -4.6974454
-118.51835 515.37305 -4.4031444
-115.67214 514.6662 -4.3439102
-112.3559 514.35132 -4.4480634
-109.42596 514.5387 -4.4589095
-106.84131 514.06171 -4.5710998
-171.50684 518.17841 -5.2856698
-169.74846 517.30762 -4.3678346
-167.40137 516.80859 -3.1790009
-129.30078 516.08984 -3.1050034
-127.27595 516.55695 -3.7638583
-124.60298 516.67828 -3.9773657
-122.17448 516.30859 -3.4473343
-114.61328 517.82227 -3.5542507
-112.61143 517.52069 -4.3455019
-109.5835 516.70245 -4.519001
-174.15625 521.93359 -5.7050018
-172.42801 520.69641 -4.6288896
-170.86133 519.58984 -3.5940018
-115.58008 519.80078 -3.7830009
-175.35638 523.95624 -4.8047352
-173.68652 522.36456 -3.9919994
-183.36914 527.34961 -5.0705032
-181.78802 526.74347 -4.4662676
-178.48228 526.12976 -4.501574
-176.47884 525.38153 -4.1856666
-183.74091 529.46313 -4.4051881
-184.42564 532.70392 -4.6738009
-186.33398 536.18359 -5.8745003
-184.36081 535.73077 -4.7052317
-182.5 535.72266 -3.3713353
-187.0663 538.4848 -5.3035564
-184.7394 538.38049 -3.9805343
-182.78027 537.49219 -3.0470047
-189.68047 541.59296 -5.3464003
-187.43008 541.25366 -4.4108682
-185.25684 540.68622 -3.3760021
-190.15845 544.70636 -4.9158344
-188.13977 544.11572 -3.5573769
-192.80547 548.33124 -5.2139997
-190.93367 547.30286 -4.104846
-195.125 551.28516 -5.6480026
-193.49974 550.27216 -4.3610678
-195.56947 553.97937 -5.3538589
-194.09517 553.27985 -4.0710011
-199.29283 557.18915 -5.359715
-196.5127 556.41821 -4.3474722
-194.74854 556.01953 -3.2355003
-201.79903 559.71643 -5.5128036
-199.55394 559.55304 -4.4528584
-197.2155 558.80988 -3.3383331
-202.06529 562.85712 -4.8470016
-200.01477 561.86963 -3.7753754
-204.99438 566.29199 -5.6200027
-202.82414 565.70062 -4.1387162
-207.38379 568.46875 -5.7410049
-205.21707 568.71149 -4.534286
-203.35132 567.81641 -3.6522503
-210.56396 572.66797 -5.7825012
-208.36124 571.98511 -5.0661831
-206.11984 571.16571 -3.749429
-211.18059 574.50031 -4.8990021
-208.91179 573.97656 -3.7447782
-206.9873 573.35938 -3.1969986
-210.79736 577.80762 -4.3883762
-209.48779 576.63281 -3.3700027
-213.89861 580.91473 -5.1901703
-211.77649 580.34766 -4.5688772
-214.35854 583.60992 -4.8006434
-211.89365 583.46344 -3.6282744
-216.00293 586.19922 -5.7919998
-214.61212 586.31567 -4.2474566
-212.63445 586.8125 -3.1353352
-214.10107 588.4248 -3.6209984
110.45508 -537.07031 -0.08600235
118.04199 -537.08594 -0.043998718
124.52539 -537.05859 -0.090003967
126.52051 -537.14844 -0.2440033
130.02246 -537.29297 -0.041000366
95.884277 -534.81836 -0.27000427
97.871788 -534.8432 -0.67585754
100.33897 -534.92706 -0.81455654
103.60713 -535.10156 -1.0072021
106.64995 -535.14166 -0.99518305
109.55218 -535.32507 -1.2393587
112.47266 -535.61267 -1.038154
115.54785 -535.01208 -1.2966378
118.49414 -535.40295 -1.3953089
121.51154 -535.82422 -1.7400012
124.34466 -535.68195 -1.7881448
127.41335 -535.59741 -1.8799351
130.50293 -535.56042 -1.3435333
133.47061 -534.87384 -1.241101
135.96338 -534.75262 -0.68800229
142.63828 -534.61639 -0.82220304
145.6459 -535.12891 -1.1820015
148.08487 -534.58911 -0.90263921
152.28613 -534.41211 -0.83200264
154.3208 -534.36865 -1.4108753
157.62158 -534.65692 -0.85000104
160.37634 -534.3042 -1.3912497
163.42802 -534.46405 -1.4927002
166.81029 -534.80005 -1.4803654
169.47577 -534.63635 -1.6930015
172.67627 -534.4375 -1.1627512
175.93301 -534.54919 -0.93880004
178.52332 -534.5874 -1.3650017
181.33702 -534.51392 -1.2823342
184.39124 -534.39014 -1.4445019
186.73975 -534.49805 -0.38700104
85.817871 -531.50977 -0.2480011
88.582031 -532.04858 -1.0486679
91.555382 -532.63898 -1.5986432
94.504189 -533.0257 -1.7685002
97.216896 -532.5238 -2.1811013
100.21416 -533.08398 -2.1454003
103.62256 -533.13867 -2.4623766
106.65983 -533.22266 -2.4052243
109.47827 -533.5127 -2.5492496
112.83423 -533.49658 -2.5592499
115.42855 -533.27539 -2.6241684
118.70239 -533.73242 -2.6914997
130.71387 -533.80859 -2.8510017
133.25049 -533.81055 -2.4100037
136.56458 -533.46826 -2.1138763
139.58293 -533.23309 -1.8289185
142.14008 -533.17316 -1.9656686
144.82471 -533.55469 -2.4410019
149.118 -533.80597 -1.9961687
151.45686 -533.65302 -1.9745026
155.0739 -533.57294 -2.4883347
157.18633 -533.6875 -2.3468018
160.29395 -533.82031 -2.6823349
166.4165 -533.90039 -2.8830032
170.14258 -533.75 -2.9889984
172.39876 -533.85028 -2.5970027
175.43571 -533.77277 -2.3005016
178.18164 -533.79297 -2.7713318
181.08919 -533.75 -2.7480011
184.847 -533.04169 -2.3708904
187.56331 -532.75977 -1.821668
190.50621 -532.55536 -1.7051778
193.5638 -532.4198 -1.4206685
196.4135 -531.76172 -0.77000207
83.495445 -529.112 -0.34333548
85.754066 -529.53418 -1.3195019
88.193573 -529.87415 -2.2954466
90.704102 -530.43359 -2.7970047
188.70801 -530.75 -2.9950027
194.01302 -530.39325 -2.6286671
196.50827 -529.60699 -2.0824633
199.1543 -529.35968 -0.9038353
202.10425 -528.58301 -0.3010006
204.80078 -528.02734 -0.095001221
79.987862 -526.10712 -0.77300155
82.746254 -526.62531 -1.4606673
85.054688 -526.62598 -2.4942522
197.0957 -527.5459 -2.7159996
199.80528 -526.74548 -2.1614633
202.47496 -526.39667 -1.5480922
205.12598 -526.41077 -0.91430897
207.21484 -525.51563 -0.33100128
71.11068 -522.25128 -0.46766663
73.737793 -522.67902 -1.0193354
76.606606 -523.44824 -1.9047508
79.241409 -523.9129 -2.2743011
81.19873 -524.48438 -2.2195015
203.20776 -524.57031 -2.7487526
205.95613 -523.56671 -2.2558346
207.70241 -523.40521 -0.70745641
67.526527 -519.64716 -0.89133453
70.441498 -520.47974 -1.6469109
73.694092 -521.34961 -2.5167503
206.39413 -520.98987 -2.6108017
208.23039 -520.51593 -1.6170845
210.8387 -519.84833 -0.61333466
61.885498 -516.6377 -0.51525116
64.650879 -517.31219 -1.2700026
67.317505 -517.88525 -2.0927515
69.945801 -518.56445 -2.8525009
206.99414 -517.70313 -2.8619995
208.92798 -518.30664 -2.5146275
211.65663 -517.66138 -1.7361556
213.8636 -516.65454 -1.1026688
